# .PCD v0.7 - Point Cloud Data file format
VERSION 0.7
FIELDS x y z
SIZE 4 4 4
TYPE F F F
COUNT 1 1 1
WIDTH 1645
HEIGHT 1
VIEWPOINT 0 0 0 1 0 0 0
POINTS 1645
DATA ascii
45.90435 11.028445 229.0634
45.904362 11.028453 227.19009
45.904358 11.02845 228.0164
45.904354 11.028446 228.82001
45.904358 11.028452 227.4827
45.904354 11.028449 228.30051
45.904358 11.028452 227.4985
45.904354 11.028449 228.3179
45.904354 11.028446 229.11681
45.904362 11.028456 226.6609
45.904358 11.028453 227.5145
45.904358 11.028449 228.33521
45.904354 11.028446 229.1356
45.904362 11.028454 227.2496
45.904358 11.02845 228.0806
45.904354 11.028447 228.8895
45.904362 11.028455 226.98109
45.904358 11.028452 227.82291
45.904354 11.028448 228.6393
45.904366 11.028456 226.70309
45.904362 11.028453 227.561
45.904358 11.02845 228.386
45.904354 11.028447 229.19051
45.904358 11.028452 227.8566
45.904358 11.028449 228.6763
45.904366 11.028457 226.73219
45.904358 11.02845 228.41991
45.904366 11.028457 226.74429
45.904362 11.028454 227.6075
45.904358 11.028451 228.4366
45.904366 11.028457 226.7569
45.904362 11.028454 227.6227
45.904358 11.028451 228.453
45.904366 11.028458 226.7739
45.904362 11.028455 227.6387
45.904358 11.028451 228.4704
45.904366 11.028458 226.7887
45.904362 11.028455 227.65359
45.904358 11.028451 228.48689
45.904366 11.028457 227.09779
45.904362 11.028454 227.9527
45.904358 11.02845 228.782
45.904366 11.028457 227.11349
45.904362 11.028454 227.96919
45.904358 11.028451 228.7986
45.904366 11.028458 227.127
45.904362 11.028455 227.9838
45.904358 11.028451 228.815
45.904366 11.028458 227.14281
45.904362 11.028455 228.0014
45.904358 11.028451 228.8344
45.904366 11.028457 227.4463
45.904362 11.028454 228.2951
45.904358 11.02845 229.1218
45.904366 11.028458 227.1723
45.904362 11.028455 228.03391
45.904362 11.028452 228.87
45.904419 11.028371 233.85181
45.904366 11.028457 227.7644
45.904362 11.028453 228.6078
45.904369 11.02846 226.9041
45.904366 11.028458 227.4926
45.904362 11.028455 228.3459
45.904358 11.028451 229.1774
45.904369 11.028459 227.2168
45.904366 11.028456 228.0831
45.904362 11.028453 228.923
45.904419 11.028373 233.96381
45.904366 11.028457 227.8123
45.904362 11.028454 228.66051
45.904369 11.028461 226.9467
45.904366 11.028459 227.5388
45.904366 11.028455 228.39729
45.904369 11.028459 227.5555
45.904366 11.028456 228.41589
45.904369 11.028459 227.5703
45.904366 11.028456 228.4323
45.904369 11.028461 226.99071
45.904366 11.028458 227.8766
45.904362 11.028455 228.7318
45.904369 11.028461 227.3045
45.904366 11.028458 228.17999
45.904362 11.028454 229.02969
45.904373 11.028462 226.71111
45.904369 11.02846 227.61501
45.904366 11.028457 228.4819
45.904369 11.028459 227.9239
45.904362 11.028454 229.06799
45.904366 11.028457 228.5193
45.904373 11.028462 227.06
45.904369 11.02846 227.9559
45.904366 11.028455 229.1042
45.904373 11.028463 226.76579
45.904369 11.028461 227.6786
45.904366 11.028458 228.55251
45.904373 11.028463 227.09039
45.904369 11.02846 227.9886
45.904366 11.028457 228.85719
45.904373 11.028462 227.40919
45.904369 11.02846 228.2961
45.904366 11.028456 229.1586
45.904377 11.028464 226.8084
45.904373 11.028461 227.7243
45.904369 11.028458 228.6037
45.904373 11.028463 227.13361
45.904369 11.028461 228.0365
45.904366 11.028457 228.91
45.904373 11.028463 227.45441
45.904369 11.02846 228.347
45.904366 11.028457 229.21471
45.904377 11.028465 226.8494
45.904373 11.028462 227.77161
45.904369 11.028459 228.657
45.904373 11.028463 227.4855
45.904369 11.028461 228.38181
45.904377 11.028465 227.1899
45.904373 11.028461 228.1004
45.904369 11.028458 228.9818
45.904377 11.028466 226.89191
45.904373 11.028463 227.819
45.904369 11.02846 228.7104
45.904377 11.028464 227.5312
45.904373 11.028461 228.4332
45.904377 11.028464 227.54671
45.904373 11.028461 228.45061
45.904377 11.028466 227.25011
45.904373 11.028462 228.1685
45.904369 11.02846 229.0571
45.904381 11.028467 226.9494
45.904377 11.028464 227.883
45.904373 11.028461 228.78169
45.904373 11.028462 228.50169
45.904377 11.028467 227.2932
45.904373 11.028463 228.2175
45.904369 11.028461 229.1114
45.904381 11.028468 226.9901
45.904377 11.028465 227.9301
45.904373 11.028461 228.83501
45.904381 11.02847 226.6826
45.904377 11.028466 227.6368
45.904373 11.028462 228.5528
45.904381 11.028467 227.33549
45.904377 11.028464 228.26601
45.904373 11.028461 229.1651
45.904377 11.028465 227.9785
45.904373 11.028462 228.88969
45.904385 11.028471 226.7233
45.904381 11.028467 227.6832
45.904377 11.028463 228.60429
45.904377 11.028465 228.3177
45.904381 11.028469 227.39729
45.904377 11.028465 228.33611
45.904381 11.028469 227.4117
45.904377 11.028465 228.3524
45.904381 11.028469 227.42509
45.904377 11.028466 228.3679
45.904381 11.02847 227.44141
45.904377 11.028466 228.3864
45.904385 11.02847 227.4547
45.904381 11.028466 228.40179
45.904385 11.02847 227.4707
45.904381 11.028467 228.4202
45.904385 11.02847 227.4847
45.904381 11.028467 228.4371
45.904385 11.028471 227.49921
45.904381 11.028467 228.4538
45.904385 11.028471 227.5155
45.904381 11.028467 228.47211
45.904385 11.028471 227.52991
45.904381 11.028468 228.4886
45.904388 11.028474 226.88429
45.904385 11.02847 227.8717
45.904381 11.028467 228.82001
45.904388 11.028473 227.2285
45.904385 11.02847 228.2058
45.904381 11.028466 229.14549
45.904388 11.028473 227.2442
45.904385 11.02847 228.22411
45.904381 11.028466 229.1662
45.904388 11.028474 227.258
45.904385 11.02847 228.2402
45.904381 11.028467 229.1844
45.904388 11.028474 227.2718
45.904385 11.02847 228.2562
45.904381 11.028467 229.2037
45.904388 11.028474 227.2872
45.904385 11.028471 228.27451
45.904388 11.028474 227.6355
45.904385 11.02847 228.61099
45.904392 11.028477 226.9801
45.904388 11.028473 227.98399
45.904385 11.028469 228.94501
45.904392 11.028475 227.3299
45.904385 11.028472 228.32449
45.904388 11.028475 227.6814
45.904385 11.028471 228.6644
45.904388 11.028474 228.03259
45.904385 11.02847 229.0036
45.904392 11.028476 227.373
45.904388 11.028473 228.3748
45.904392 11.028476 227.7276
45.904388 11.028472 228.7188
45.904392 11.028479 227.05949
45.904388 11.028475 228.08051
45.904385 11.028471 229.05701
45.904392 11.028477 227.4176
45.904388 11.028474 228.42751
45.904392 11.028477 227.77409
45.904388 11.028473 228.77299
45.904396 11.02848 227.1026
45.904392 11.028476 228.12981
45.904388 11.028472 229.1131
45.904396 11.028479 227.46069
45.904392 11.028475 228.4783
45.904396 11.028481 226.769
45.904392 11.028478 227.82001
45.904388 11.028474 228.8268
45.904396 11.028481 227.142
45.904392 11.028477 228.1774
45.904388 11.028473 229.168
45.904396 11.02848 227.5042
45.904392 11.028476 228.5294
45.9044 11.028481 226.80721
45.904396 11.028479 227.8671
45.904392 11.028475 228.8817
45.904396 11.028481 227.1834
45.904392 11.028478 228.22729
45.9044 11.028482 226.83321
45.904396 11.028479 227.8974
45.904392 11.028475 228.91769
45.904396 11.028481 227.5638
45.904392 11.028477 228.6004
45.9044 11.028481 227.58009
45.904392 11.028477 228.61929
45.9044 11.028482 227.23981
45.904396 11.028479 228.2961
45.9044 11.028483 227.2522
45.904396 11.028479 228.31149
45.9044 11.028483 227.26669
45.904396 11.02848 228.3287
45.9044 11.028483 227.28059
45.904396 11.02848 228.34509
45.9044 11.028484 227.2942
45.904396 11.028481 228.3616
45.904404 11.028484 227.30991
45.9044 11.028481 228.3801
45.904404 11.028484 227.32291
45.9044 11.028481 228.39639
45.904404 11.028485 227.3367
45.9044 11.028481 228.4131
45.904404 11.028484 227.7142
45.9044 11.028481 228.78
45.904404 11.028484 227.7307
45.9044 11.028481 228.79961
45.904404 11.028485 227.7455
45.9044 11.028481 228.8172
45.904404 11.028485 227.7612
45.9044 11.028481 228.836
45.904404 11.028485 227.77589
45.9044 11.028481 228.85339
45.904404 11.028486 227.7906
45.9044 11.028482 228.87131
45.904408 11.028489 227.0569
45.904404 11.028485 228.1722
45.904408 11.028488 227.4501
45.904404 11.028484 228.5515
45.904408 11.028488 227.46539
45.904404 11.028484 228.56979
45.904408 11.028489 227.47929
45.904404 11.028485 228.58701
45.904408 11.028489 227.49319
45.904404 11.028485 228.60451
45.904408 11.02849 227.5088
45.904404 11.028485 228.6236
45.904411 11.02849 227.5215
45.904408 11.028486 228.6404
45.904415 11.028493 226.75349
45.904408 11.028489 227.9158
45.904404 11.028485 229.0206
45.904408 11.028487 228.6763
45.904415 11.028494 226.7773
45.904411 11.02849 227.94521
45.904408 11.028486 229.0575
45.904415 11.028493 227.1908
45.904408 11.028489 228.3396
45.904411 11.028492 227.59419
45.904408 11.028488 228.73109
45.904415 11.028495 226.81461
45.904411 11.028491 227.9929
45.904408 11.028487 229.11481
45.904419 11.028496 226.82851
45.904411 11.028491 228.0101
45.904408 11.028487 229.1353
45.904415 11.028495 227.24429
45.904411 11.028491 228.4077
45.904415 11.028495 227.2576
45.904411 11.028491 228.42439
45.904419 11.028496 227.27139
45.904411 11.028491 228.44189
45.904419 11.028496 227.2854
45.904415 11.028492 228.4595
45.904419 11.028498 226.8914
45.904415 11.028494 228.08929
45.904419 11.028497 227.31129
45.904415 11.028493 228.4931
45.904419 11.028496 227.7282
45.904415 11.028492 228.89841
45.904423 11.028499 226.9277
45.904419 11.028495 228.13721
45.904419 11.028497 227.7579
45.904415 11.028493 228.935
45.904423 11.028499 227.36639
45.904415 11.028494 228.5629
45.904419 11.028496 228.18671
45.904419 11.028498 227.8033
45.904415 11.028494 228.9919
45.904423 11.0285 227.40891
45.904419 11.028496 228.6172
45.904427 11.028502 227.0022
45.904419 11.028498 228.2382
45.904423 11.0285 227.84821
45.904419 11.028495 229.048
45.904423 11.028499 228.27029
45.904427 11.028502 227.4637
45.904423 11.028498 228.688
45.904423 11.028501 227.8934
45.904419 11.028497 229.1051
45.90443 11.028504 227.0629
45.904423 11.0285 228.32091
45.904427 11.028503 227.5058
45.904423 11.028499 228.7429
45.90443 11.028505 227.08701
45.904427 11.028501 228.3532
45.904434 11.028507 226.6622
45.904427 11.028502 227.9559
45.904423 11.028499 229.183
45.90443 11.028504 227.5481
45.904423 11.028501 228.7972
45.90443 11.028506 227.1264
45.904427 11.028502 228.4059
45.904434 11.028507 227.13879
45.904427 11.028502 228.42261
45.904434 11.028507 227.1506
45.904427 11.028503 228.4395
45.90443 11.028503 228.45799
45.90443 11.028505 228.0506
45.904434 11.028507 227.63319
45.90443 11.028503 228.9111
45.904438 11.028509 227.2027
45.90443 11.028505 228.5105
45.904438 11.028511 226.7628
45.904434 11.028507 228.0986
45.904434 11.028509 227.677
45.90443 11.028504 228.96831
45.904438 11.028511 227.24271
45.904434 11.028506 228.5638
45.904442 11.028513 226.7955
45.904434 11.028508 228.1451
45.904438 11.02851 227.72099
45.904434 11.028506 229.0262
45.904438 11.028513 227.28239
45.904434 11.028508 228.617
45.904438 11.02851 228.194
45.904438 11.028512 227.7659
45.904434 11.028508 229.0845
45.904442 11.028515 227.3239
45.904438 11.02851 228.67171
45.904446 11.028517 226.8672
45.904438 11.028512 228.2426
45.904442 11.028514 227.80991
45.904438 11.028509 229.1434
45.904442 11.028516 227.3634
45.904438 11.028511 228.7238
45.904446 11.028518 226.9017
45.904442 11.028514 228.2921
45.904446 11.028518 227.3882
45.904442 11.028513 228.7588
45.904442 11.028516 227.86909
45.904442 11.028514 228.7948
45.904442 11.028514 228.8131
45.904442 11.028515 228.8318
45.904446 11.028518 228.41251
45.904434 11.028533 227.2708
45.904434 11.028535 227.3111
45.90443 11.028539 227.3864
45.90443 11.028541 227.42281
45.90443 11.028543 227.45779
45.90443 11.028544 227.49271
45.90443 11.028546 227.5262
45.90443 11.028548 227.5598
45.90443 11.028552 227.6236
45.90443 11.028554 227.6537
45.904434 11.028556 227.6821
45.904449 11.02857 227.3609
45.904453 11.028573 227.3802
45.904457 11.028576 227.40089
45.904499 11.028878 231.9455
45.904297 11.028682 234.43629
45.904297 11.028683 234.4151
45.904297 11.028684 234.39439
45.904297 11.028684 234.3903
45.904297 11.028685 234.3925
45.904297 11.028685 234.3985
45.904434 11.02899 224.22301
45.904457 11.029035 222.8295
45.904449 11.029027 222.84669
45.904438 11.028994 223.1617
45.904293 11.028702 234.1832
45.904434 11.029001 222.87421
45.904434 11.029052 222.85361
45.904396 11.02897 224.2276
45.904408 11.028997 223.03239
45.904381 11.028933 224.42551
45.904404 11.029001 222.88741
45.904377 11.028932 224.2292
45.904285 11.028715 232.9312
45.904285 11.028716 232.56599
45.904285 11.028717 232.53819
45.904285 11.028717 232.18159
45.904285 11.028718 231.04871
45.904362 11.028951 224.09331
45.904362 11.028951 224.05811
45.904285 11.028718 230.657
45.904285 11.028718 230.6429
45.904285 11.028718 230.2901
45.904285 11.028718 230.2722
45.904285 11.028718 229.9427
45.904285 11.028718 229.23959
45.904339 11.028913 223.8325
45.904285 11.028718 229.18761
45.904285 11.028718 228.8669
45.904339 11.028886 222.7663
45.904346 11.028972 222.963
45.904343 11.028974 223.6447
45.904335 11.028918 223.51401
45.904324 11.028824 223.6116
45.904285 11.028718 228.4776
45.904285 11.028718 227.82539
45.904285 11.028718 227.7753
45.904285 11.028718 227.75729
45.904285 11.028718 227.4566
45.904285 11.028718 226.7525
45.904316 11.028873 222.7717
45.904312 11.028881 223.7195
45.904305 11.028814 223.5011
45.904305 11.028812 223.51289
45.904305 11.028818 223.3967
45.904301 11.028893 223.7272
45.904301 11.028894 223.68089
45.904301 11.028894 223.6418
45.904301 11.028895 223.5995
45.904293 11.028906 222.86391
45.904289 11.028906 222.8286
45.904285 11.028916 223.7841
45.904278 11.028856 223.5368
45.90427 11.028866 223.7587
45.904274 11.028862 223.21761
45.904266 11.028863 224.1666
45.904266 11.028871 223.9673
45.90427 11.028758 223.836
45.904255 11.028947 223.9836
45.90427 11.028834 222.73199
45.904263 11.028871 223.09441
45.904263 11.028874 223.01019
45.904255 11.028884 223.9073
45.904266 11.028752 224.10789
45.904266 11.028786 223.4198
45.904266 11.028783 223.40511
45.904243 11.028906 224.4268
45.904263 11.028753 223.8804
45.904255 11.028876 223.10699
45.904251 11.028883 222.9626
45.904236 11.028966 224.3615
45.904251 11.028886 222.8073
45.904259 11.028745 224.2132
45.904259 11.028744 224.19099
45.904243 11.028898 222.9758
45.904255 11.028783 223.3398
45.904243 11.028899 222.80141
45.904217 11.029003 223.9798
45.904236 11.028841 224.0903
45.904217 11.028928 224.1377
45.904232 11.028845 223.97031
45.904186 11.029105 224.0775
45.904251 11.028738 224.0638
45.904247 11.028736 224.0267
45.904228 11.028874 222.7858
45.904228 11.028864 222.90289
45.904205 11.028952 224.05099
45.904247 11.02873 224.0704
45.904228 11.028849 223.0722
45.904175 11.029064 224.42619
45.904221 11.028893 222.78149
45.904202 11.02896 223.7574
45.904221 11.028862 223.70309
45.904221 11.028883 222.8392
45.904221 11.028884 222.7823
45.904213 11.028868 223.97501
45.904217 11.028858 222.8689
45.904213 11.028871 223.1376
45.904228 11.028807 222.7863
45.904213 11.028874 223.0304
45.90424 11.028735 224.04221
45.904209 11.028871 222.83321
45.904209 11.02887 222.8031
45.904236 11.028724 224.0768
45.904236 11.028727 223.9994
45.904202 11.028867 222.95039
45.904179 11.028911 223.9807
45.904213 11.028806 223.82201
45.904221 11.028793 222.7157
45.904209 11.028806 223.71719
45.904198 11.028854 222.72391
45.904202 11.028819 223.7148
45.904205 11.028812 223.3437
45.904198 11.028824 224.0072
45.904198 11.028822 224.0079
45.904156 11.028939 224.213
45.904228 11.028725 223.90961
45.904198 11.028818 224.02049
45.904205 11.028809 223.2708
45.904186 11.02886 222.7677
45.904198 11.028822 223.3669
45.904194 11.028818 223.2357
45.904182 11.028839 223.7919
45.904133 11.028973 224.019
45.904182 11.028838 223.7513
45.904182 11.02885 223.09801
45.90419 11.028828 222.9379
45.904182 11.028842 223.61571
45.904228 11.028713 224.1217
45.90419 11.028828 222.9039
45.904224 11.028718 223.99631
45.90419 11.02883 222.82111
45.904182 11.02884 222.991
45.904114 11.028997 224.04691
45.90419 11.02882 222.83611
45.90419 11.02882 222.79829
45.904179 11.028831 222.79491
45.904091 11.029025 224.07761
45.904179 11.02883 222.786
45.904144 11.02889 223.89101
45.904198 11.028783 222.78259
45.90416 11.028868 223.0218
45.904221 11.028713 223.99879
45.904179 11.028826 222.7249
45.904171 11.028836 222.93159
45.90414 11.028896 223.6714
45.904182 11.028808 222.98241
45.904133 11.028901 224.0475
45.904129 11.028911 223.89101
45.904125 11.028914 223.79269
45.904171 11.028828 222.73061
45.90419 11.028776 222.7925
45.904171 11.028816 222.778
45.90419 11.028773 222.78461
45.904175 11.028809 222.8425
45.904091 11.028955 224.0921
45.904087 11.02896 223.9827
45.904179 11.028782 223.56799
45.904179 11.028781 223.5424
45.904175 11.02878 223.47701
45.904171 11.028783 223.7963
45.904205 11.028715 223.83141
45.904186 11.028769 222.8208
45.904049 11.029017 223.64549
45.904167 11.028796 222.974
45.90416 11.0288 224.2238
45.904045 11.029019 223.5573
45.904167 11.028794 222.9626
45.904152 11.028815 223.9471
45.904167 11.02879 222.9973
45.904156 11.028803 224.0871
45.904148 11.028819 223.8058
45.904194 11.028732 223.4744
45.904015 11.029063 223.69659
45.90416 11.028802 222.99451
45.904137 11.028831 223.3356
45.904194 11.028732 223.297
45.904175 11.028767 222.7674
45.904121 11.028854 223.31
45.904156 11.028801 222.7178
45.904114 11.028861 223.0677
45.904091 11.028893 223.84689
45.904114 11.028862 222.9946
45.904087 11.028899 223.65491
45.904114 11.02886 222.91119
45.904087 11.028893 223.6196
45.904186 11.028729 223.2997
45.904202 11.028697 224.0403
45.90403 11.028971 223.8457
45.904163 11.028757 222.73219
45.904148 11.02875 223.976
45.904148 11.028757 223.4024
45.904133 11.028767 224.01331
45.904129 11.028781 223.25169
45.904144 11.028755 223.3206
45.904121 11.028788 222.9362
45.904003 11.028936 222.7713
45.904087 11.028781 223.5728
45.903934 11.028937 224.16589
45.904083 11.028788 222.8071
45.904087 11.02878 222.8152
45.903984 11.028855 224.1503
45.904148 11.028699 223.47701
45.904045 11.028794 224.12469
45.904144 11.028696 223.2879
45.904087 11.02874 224.0849
45.904091 11.028735 224.041
45.904087 11.028735 223.9984
45.90414 11.028691 223.4015
45.904087 11.028736 223.3524
45.904137 11.028691 223.29919
45.904083 11.028729 224.2993
45.90411 11.028716 222.6992
45.904129 11.028687 223.28281
45.903976 11.028784 222.8183
45.903996 11.028761 222.9379
45.904018 11.028728 223.03551
45.904026 11.028723 223.0675
45.90403 11.028716 223.0871
45.904247 11.028038 224.0269
45.904232 11.027479 222.88609
45.90424 11.027464 223.27789
45.904247 11.027455 223.58099
45.904274 11.027425 222.84
45.904289 11.027402 223.7001
45.904297 11.028055 223.8102
45.904327 11.027324 223.1868
45.90432 11.028108 224.08031
45.904343 11.028066 223.6216
45.904343 11.028063 223.6584
45.90435 11.027969 223.86571
45.904354 11.027979 224.0562
45.904301 11.028405 226.86031
45.904301 11.028407 226.9046
45.904301 11.028406 227.2412
45.904301 11.028407 227.2805
45.904301 11.028408 227.0625
45.904305 11.02841 226.8521
45.904301 11.028408 227.3309
45.904305 11.028412 226.6788
45.904305 11.028412 226.69479
45.904301 11.028413 227.3985
45.904305 11.028412 226.7132
45.904301 11.028413 227.4174
45.904305 11.02841 227.1864
45.904305 11.02841 227.20419
45.904305 11.028409 227.4695
45.904305 11.028412 227.02721
45.904301 11.028405 228.19231
45.904301 11.028405 228.2103
45.904305 11.028411 227.2943
45.904301 11.028406 228.2261
45.904305 11.028412 227.30969
45.904301 11.028411 228.00259
45.904308 11.028413 227.0975
45.904305 11.028409 227.7885
45.904305 11.028412 227.3436
45.904305 11.028407 227.804
45.904308 11.028414 226.9081
45.904312 11.02838 227.52589
45.904301 11.028408 228.2925
45.904308 11.028415 226.6947
45.904308 11.028412 227.37981
45.904305 11.028409 228.0742
45.904308 11.028413 227.16769
45.904301 11.02841 228.3219
45.904308 11.028413 227.1844
45.904305 11.028408 227.87421
45.904301 11.028405 228.58839
45.904308 11.028414 227.2021
45.904305 11.028408 227.892
45.904308 11.028411 227.67709
45.904305 11.02841 228.3735
45.904308 11.028409 227.455
45.904305 11.02841 228.15891
45.904308 11.028414 227.2554
45.904308 11.028409 227.9442
45.904308 11.028407 227.7245
45.904305 11.02841 228.4252
45.904312 11.028417 226.83369
45.904305 11.028411 228.209
45.904312 11.028417 226.8506
45.904308 11.028414 227.53439
45.904305 11.028411 228.22569
45.904312 11.028417 226.8685
45.904308 11.028415 227.55251
45.904305 11.028411 228.243
45.904305 11.028408 228.7198
45.904312 11.028415 227.34039
45.904308 11.02841 228.0295
45.904305 11.028408 228.7361
45.904316 11.028418 226.6758
45.904312 11.028415 227.358
45.904308 11.028411 228.04649
45.904305 11.028408 228.7527
45.904312 11.028416 227.3754
45.904308 11.028412 228.0634
45.904305 11.028408 228.7708
45.904316 11.028418 226.7115
45.904312 11.028416 227.3936
45.904308 11.028412 228.08189
45.904305 11.028408 228.7908
45.904312 11.028417 227.1824
45.904308 11.028414 227.8662
45.904305 11.028412 228.55791
45.904312 11.028418 226.9718
45.904312 11.028416 227.6552
45.904308 11.028413 228.3437
45.904316 11.028419 226.7619
45.904312 11.028416 227.4427
45.904308 11.028413 228.1312
45.904305 11.028409 228.8391
45.904316 11.028419 226.778
45.904312 11.028416 227.459
45.904308 11.028413 228.14751
45.904305 11.028408 228.8589
45.904316 11.028419 226.7972
45.904312 11.028416 227.4782
45.904312 11.028414 227.93581
45.904308 11.028413 228.6256
45.904316 11.028419 227.0407
45.904312 11.028416 227.72321
45.904308 11.028414 228.4093
45.904316 11.028419 227.05611
45.904308 11.028414 228.4257
45.904316 11.028419 227.0742
45.904312 11.028417 227.75681
45.904308 11.028414 228.44209
45.904316 11.028419 226.86571
45.904312 11.028417 227.54581
45.904312 11.028414 228.23309
45.904308 11.028413 228.69431
45.904316 11.028419 227.33791
45.904312 11.028416 228.0208
45.904308 11.028413 228.7117
45.904316 11.028419 227.1264
45.904312 11.028417 227.8084
45.904308 11.028415 228.4939
45.904316 11.028419 227.1429
45.904312 11.028417 227.8248
45.904308 11.028415 228.5101
45.904316 11.028419 227.1593
45.904316 11.028418 227.6138
45.904312 11.028415 228.30051
45.904312 11.028399 229.0961
45.904316 11.02842 226.9537
45.904316 11.028418 227.6315
45.904312 11.028415 228.3177
45.904312 11.028399 229.1149
45.90432 11.028421 226.7462
45.904316 11.028419 227.42419
45.904312 11.028416 228.1075
45.904308 11.028414 228.79919
45.90432 11.028422 226.76289
45.904316 11.028419 227.4404
45.904312 11.028416 228.1239
45.904308 11.028414 228.81551
45.904316 11.02842 227.23061
45.904316 11.028417 227.91
45.904312 11.028416 228.59531
45.90432 11.028421 227.0229
45.904312 11.028416 228.3855
45.90432 11.028421 227.0377
45.904316 11.028419 227.7155
45.904312 11.028416 228.4006
45.904316 11.028418 227.9613
45.904312 11.028416 228.6468
45.904316 11.02842 227.52721
45.904316 11.028417 228.2086
45.904312 11.028414 228.90691
45.904324 11.028409 227.0089
45.904316 11.028419 227.76871
45.904312 11.028417 228.45441
45.904324 11.028419 226.84419
45.904316 11.02842 227.56
45.904316 11.028418 228.2411
45.904312 11.028414 228.94299
45.904324 11.028424 226.66991
45.904316 11.02842 227.8024
45.904312 11.028417 228.4874
45.90432 11.028421 227.3653
45.904316 11.028419 228.0452
45.904312 11.028416 228.73219
45.90432 11.028421 227.61099
45.904316 11.028418 228.29221
45.904312 11.028413 229.0027
45.904316 11.028421 227.85339
45.904316 11.028417 228.539
45.904331 11.028393 227.3056
45.90432 11.028412 228.1059
45.904312 11.028417 228.785
45.904316 11.028421 227.8868
45.904316 11.028418 228.5726
45.904324 11.028425 226.76981
45.904316 11.028419 228.3553
45.904324 11.028423 227.2346
45.904316 11.028418 228.6028
45.904324 11.028425 226.8028
45.904324 11.028414 227.45081
45.904316 11.02842 228.158
45.904316 11.028417 228.85091
45.904324 11.028426 226.82201
45.904324 11.028418 227.48199
45.904327 11.028392 227.9595
45.904316 11.028418 228.6377
45.904324 11.028426 226.8374
45.904324 11.02842 227.505
45.904327 11.028393 227.978
45.904316 11.028419 228.65199
45.90432 11.028421 228.20869
45.904324 11.028426 226.8734
45.904324 11.028423 227.5475
45.904331 11.028392 228.02071
45.904327 11.028428 226.6653
45.904324 11.028425 227.34261
45.904324 11.028427 226.9077
45.904324 11.028424 227.5826
45.904327 11.028428 226.6971
45.904324 11.028425 227.3746
45.90432 11.02842 228.50729
45.904316 11.028419 228.96899
45.904324 11.028426 227.16811
45.904324 11.028423 227.84419
45.904324 11.028424 227.8587
45.904316 11.028419 229
45.904324 11.028427 227.201
45.904324 11.028424 227.877
45.904316 11.028419 229.0173
45.904327 11.028427 227.21651
45.904324 11.028424 227.8932
45.90432 11.02842 228.8042
45.904327 11.028428 227.0103
45.904324 11.028425 227.6846
45.904327 11.028429 226.7955
45.904324 11.028426 227.47549
45.904324 11.028423 228.15379
45.904327 11.028428 227.04311
45.904324 11.028425 227.718
45.904324 11.028417 228.41991
45.904327 11.028428 227.05991
45.904324 11.028425 227.73511
45.904324 11.028419 228.4277
45.904327 11.028427 227.3007
45.904324 11.028425 227.9782
45.904327 11.028429 226.86211
45.904327 11.028427 227.54201
45.904324 11.028424 228.2198
45.904324 11.028426 227.7838
45.904324 11.028423 228.46249
45.904331 11.028431 226.6703
45.904324 11.028425 228.02789
45.904324 11.028418 228.7422
45.904331 11.02843 226.91499
45.904324 11.028425 228.27029
45.904327 11.028429 227.1597
45.904327 11.028426 227.8354
45.904324 11.028424 228.5135
45.904331 11.028431 226.7191
45.904327 11.028429 227.39951
45.904324 11.028426 228.0777
45.904324 11.028423 228.76109
45.904327 11.028428 227.64211
45.904324 11.028425 228.3204
45.904331 11.02843 227.21049
45.904327 11.028427 227.88699
45.904324 11.028425 228.56551
45.904331 11.028431 226.9977
45.904327 11.028428 227.67551
45.904324 11.028425 228.35471
45.904324 11.028419 229.0687
45.904327 11.028428 227.6936
45.904324 11.028425 228.373
45.904324 11.028422 229.0663
45.904327 11.028428 227.7088
45.904324 11.028426 228.3882
45.904324 11.028422 229.0762
45.904327 11.028429 227.72591
45.904324 11.028426 228.4055
45.904324 11.028423 229.09019
45.904331 11.028433 226.8349
45.904327 11.028427 228.1958
45.904324 11.028425 228.8756
45.904335 11.028433 226.8528
45.904331 11.02843 227.5354
45.904327 11.028427 228.2142
45.904324 11.028425 228.8947
45.904331 11.028431 227.3253
45.904327 11.028428 228.00349
45.904324 11.028426 228.6839
45.904331 11.028431 227.3416
45.904327 11.028428 228.0197
45.904324 11.028426 228.7003
45.904331 11.028431 227.3576
45.904327 11.028428 228.036
45.904327 11.028426 228.71741
45.904335 11.028434 226.6707
45.904331 11.028432 227.3746
45.904327 11.028429 228.05321
45.904327 11.028426 228.7345
45.904335 11.028435 226.6875
45.904331 11.028432 227.3918
45.904327 11.028429 228.0704
45.904327 11.028426 228.752
45.904331 11.028432 227.4095
45.904331 11.028429 228.08859
45.904327 11.028426 228.7709
45.904335 11.028433 227.1976
45.904331 11.02843 227.8784
45.904327 11.028427 228.55991
45.904335 11.028435 226.7373
45.904331 11.028432 227.44189
45.904331 11.028429 228.12109
45.904327 11.028427 228.8036
45.904335 11.028434 227.23
45.904331 11.028431 227.9117
45.904327 11.028428 228.5938
45.904327 11.028429 228.3812
45.904327 11.028426 229.0667
45.904335 11.028433 227.49181
45.904331 11.02843 228.1716
45.904327 11.028427 228.8558
45.904335 11.028434 227.2785
45.904331 11.028431 227.9612
45.904327 11.028428 228.6447
45.904335 11.028435 227.06461
45.904335 11.028432 227.7505
45.904331 11.02843 228.4321
45.904327 11.028426 229.1196
45.904339 11.028436 226.83299
45.904331 11.028431 227.9946
45.904327 11.028428 228.6786
45.904335 11.028435 227.09869
45.904335 11.028433 227.78571
45.904331 11.02843 228.4678
45.904327 11.028427 229.1543
45.904335 11.028435 227.3441
45.904331 11.028432 228.028
45.904331 11.028429 228.7128
45.904339 11.028436 227.1308
45.904335 11.028433 227.8168
45.904331 11.02843 228.4994
45.904327 11.028427 229.1869
45.904335 11.028434 227.6073
45.904331 11.028431 228.2897
45.904327 11.028428 228.9747
45.904335 11.028435 227.39349
45.904335 11.028432 228.0786
45.904331 11.028429 228.7644
45.904339 11.028438 226.69991
45.904339 11.028436 227.1803
45.904335 11.028433 227.8671
45.904331 11.028431 228.55029
45.904339 11.028436 227.4268
45.904335 11.028433 228.11189
45.904331 11.02843 228.79829
45.904339 11.028438 226.9653
45.904335 11.028435 227.6743
45.904335 11.028432 228.35789
45.904331 11.028429 229.0432
45.904339 11.028438 226.7485
45.904339 11.028437 227.2309
45.904335 11.028434 227.9184
45.904331 11.028431 228.60291
45.904339 11.028436 227.4776
45.904335 11.028433 228.16341
45.904331 11.02843 228.8512
45.904339 11.028435 227.7243
45.904335 11.028432 228.4091
45.904331 11.02843 229.0959
45.904343 11.028439 226.7971
45.904339 11.028437 227.27859
45.904335 11.028434 227.9678
45.904331 11.028432 228.6534
45.904339 11.028437 227.5273
45.904335 11.028434 228.2142
45.904331 11.028431 228.903
45.904339 11.028439 227.0636
45.904339 11.028436 227.7726
45.904335 11.028433 228.45821
45.904331 11.02843 229.1449
45.904343 11.028439 227.07899
45.904339 11.028436 227.79041
45.904335 11.028433 228.47681
45.904331 11.028431 229.1644
45.904343 11.028439 227.0957
45.904339 11.028436 227.8074
45.904335 11.028433 228.49409
45.904331 11.028431 229.1814
45.904343 11.02844 226.8808
45.904339 11.028438 227.36279
45.904339 11.028435 228.0536
45.904335 11.028433 228.7417
45.904343 11.02844 226.661
45.904339 11.028438 227.60941
45.904335 11.028435 228.2986
45.904335 11.028432 228.9884
45.904343 11.02844 226.67661
45.904339 11.028438 227.62511
45.904339 11.028435 228.315
45.904335 11.028432 229.00529
45.904343 11.02844 226.9294
45.904339 11.028436 228.10201
45.904335 11.028434 228.78889
45.904343 11.02844 227.17709
45.904339 11.028437 227.89059
45.904335 11.028434 228.57941
45.904346 11.028441 226.72501
45.904339 11.028438 227.6748
45.904339 11.028435 228.366
45.904335 11.028432 229.0573
45.904343 11.028439 227.6908
45.904339 11.028435 228.38251
45.904343 11.02844 227.478
45.904339 11.028437 228.1707
45.904335 11.028434 228.8611
45.904343 11.02844 227.4913
45.904339 11.028437 228.18491
45.904335 11.028434 228.8766
45.904339 11.028438 227.97279
45.904339 11.028435 228.664
45.904343 11.02844 227.2749
45.904343 11.028438 227.98891
45.904339 11.028435 228.68069
45.904343 11.02844 227.2905
45.904343 11.028439 228.005
45.904339 11.028435 228.6974
45.904343 11.02844 227.30611
45.904343 11.028439 228.0231
45.904339 11.028436 228.71609
45.904346 11.028442 226.8504
45.904343 11.02844 227.8065
45.904339 11.028437 228.5014
45.904335 11.028434 229.19479
45.904346 11.028442 227.10471
45.904343 11.02844 227.5912
45.904343 11.028438 228.2872
45.904339 11.028435 228.9799
45.904346 11.028443 226.8842
45.904343 11.02844 227.83929
45.904339 11.028437 228.5347
45.904339 11.028434 229.22971
45.904343 11.02844 227.85719
45.904339 11.028437 228.5535
45.90435 11.028444 226.6759
45.904346 11.028441 227.3882
45.904343 11.02844 228.1055
45.904339 11.028437 228.7995
45.904346 11.028443 227.16879
45.904346 11.028441 227.6573
45.904343 11.028439 228.35539
45.904339 11.028436 229.0493
45.904346 11.028444 226.94881
45.904343 11.02844 227.9061
45.904343 11.028438 228.6039
45.904343 11.02844 227.922
45.904343 11.028438 228.6207
45.904346 11.028443 227.2175
45.904346 11.028441 227.7057
45.904343 11.02844 228.40511
45.904339 11.028437 229.09959
45.90435 11.028445 226.7522
45.904346 11.028443 227.4705
45.904343 11.02844 228.1908
45.904343 11.028438 228.8885
45.904346 11.028444 227.2518
45.904343 11.02844 228.4397
45.904339 11.028437 229.13519
45.90435 11.028445 227.0295
45.904346 11.028441 227.9901
45.904343 11.028439 228.6904
45.90435 11.028444 227.28371
45.904346 11.028442 227.7733
45.904343 11.02844 228.4744
45.904339 11.028438 229.1709
45.90435 11.028446 226.8194
45.904346 11.028443 227.5368
45.904346 11.02844 228.25591
45.904343 11.028439 228.72211
45.90435 11.028446 226.83211
45.904346 11.028443 227.55051
45.904346 11.028441 228.274
45.904343 11.028439 228.9726
45.90435 11.028445 227.09151
45.904346 11.028442 228.0562
45.904343 11.02844 228.7578
45.90435 11.028445 227.34779
45.904346 11.028443 227.83881
45.904343 11.02844 228.5424
45.90435 11.028446 227.1257
45.904346 11.028442 228.0894
45.90435 11.028446 227.1413
45.904346 11.028442 228.1064
45.90435 11.028446 227.15691
45.904346 11.028443 228.12241
45.904343 11.02844 228.8277
45.904354 11.028447 226.92889
45.90435 11.028444 227.6496
45.904346 11.028442 228.37601
45.904343 11.02844 229.07719
45.904354 11.028448 226.94501
45.90435 11.028445 227.6664
45.904346 11.028442 228.3922
45.90435 11.028445 227.68221
45.904346 11.028442 228.4088
45.904343 11.02844 229.11099
45.90435 11.028446 227.4593
45.90435 11.028444 227.95329
45.904346 11.028441 228.66161
45.904354 11.028447 227.23579
45.90435 11.028444 228.20599
45.904346 11.02844 228.91479
45.904354 11.028448 227.0081
45.90435 11.028446 227.7314
45.904346 11.028443 228.4601
45.904346 11.02844 229.16431
45.904354 11.028449 226.77521
45.90435 11.028447 227.508
45.90435 11.028445 228.0042
45.904346 11.028442 228.7148
45.904354 11.028448 227.2847
45.90435 11.028444 228.2576
45.904346 11.028441 228.96831
45.904354 11.028449 227.0551
45.90435 11.028446 227.78169
45.90435 11.028443 228.5114
45.904346 11.028441 228.9846
45.904354 11.028449 227.0696
45.90435 11.028446 227.79649
45.90435 11.028443 228.5278
45.904354 11.028449 227.0847
45.90435 11.028446 227.81239
45.90435 11.028444 228.54649
45.904346 11.028441 229.0202
45.904358 11.02845 226.8558
45.904354 11.028448 227.59019
45.90435 11.028446 228.0863
45.90435 11.028443 228.8004
45.904358 11.02845 226.87041
45.904354 11.028448 227.6057
45.90435 11.028446 228.1024
45.90435 11.028443 228.8174
45.904358 11.02845 227.1333
45.904354 11.028447 227.8618
45.90435 11.028444 228.5979
45.904358 11.02845 227.15041
45.904354 11.028447 227.87959
45.90435 11.028444 228.6161
45.904358 11.02845 227.16611
45.904354 11.028447 227.8965
45.90435 11.028445 228.6313
45.904358 11.02845 227.1806
45.904354 11.028448 227.9113
45.90435 11.028445 228.6488
45.904358 11.028451 227.1967
45.904354 11.028448 227.92821
45.90435 11.028445 228.6669
45.904358 11.028451 227.21291
45.904354 11.028448 227.9451
45.90435 11.028445 228.68491
45.904358 11.028451 227.229
45.904354 11.028448 227.96201
45.90435 11.028445 228.70239
45.904358 11.028451 227.2453
45.904354 11.028448 227.9789
45.90435 11.028445 228.7205
45.904362 11.028453 226.758
45.904358 11.02845 227.50861
45.904354 11.028447 228.49451
45.90435 11.028444 229.2149
45.904362 11.028453 226.7737
45.904358 11.028451 227.5242
45.904354 11.028447 228.513
45.904362 11.028453 227.04269
45.904358 11.02845 227.78619
45.904354 11.028448 228.2869
45.90435 11.028445 229.0105
45.904354 11.028449 228.04379
45.904354 11.028446 228.7894
45.904362 11.028454 226.82381
45.904358 11.028451 227.57339
45.904354 11.028447 228.5634
45.904358 11.028452 227.33949
45.904358 11.02845 228.0778
45.904354 11.028447 228.82471
45.904362 11.028455 226.85539
45.904358 11.028452 227.60651
45.904354 11.028448 228.5986
45.904362 11.028455 226.86861
45.904358 11.028452 227.62199
45.904354 11.028448 228.6143
45.904362 11.028453 227.3868
45.904358 11.02845 228.127
45.904354 11.028447 228.8766
45.904362 11.028454 227.1517
45.904358 11.028451 227.8997
45.904358 11.028449 228.40581
45.904354 11.028446 229.1329
45.904362 11.028454 227.16701
45.904358 11.028451 227.9155
45.904358 11.02845 228.4245
45.904354 11.028447 229.1519
45.904362 11.028456 226.9312
45.904362 11.028453 227.6864
45.904358 11.028449 228.6846
45.904366 11.028457 226.6833
45.904362 11.028454 227.451
45.904358 11.028451 228.1944
45.904354 11.028448 228.9458
45.904362 11.028453 227.71761
45.904358 11.028449 228.71831
45.904362 11.028455 227.22951
45.904358 11.028452 227.98109
45.904358 11.02845 228.4926
45.904354 11.028447 229.22639
45.904362 11.028454 227.4989
45.904358 11.028452 228.2449
45.904358 11.028449 229.0011
45.904366 11.028456 227.26401
45.904362 11.028453 228.017
45.904358 11.028451 228.52541
45.904366 11.028457 227.022
45.904362 11.028454 227.7823
45.904358 11.02845 228.79021
45.904366 11.028456 227.29401
45.904362 11.028453 228.0489
45.904358 11.028451 228.56059
45.904434 11.028343 230.65691
45.904366 11.028458 226.79111
45.904362 11.028455 227.56261
45.904362 11.028452 228.3121
45.904358 11.028449 229.0688
45.904366 11.028456 227.3237
45.904362 11.028453 228.0809
45.904358 11.028452 228.59489
45.904366 11.028458 227.0836
45.904362 11.028455 227.8481
45.904358 11.028451 228.8607
45.904366 11.028457 227.35699
45.904362 11.028454 228.11591
45.904362 11.028452 228.63029
45.904369 11.028459 226.8526
45.904366 11.028456 227.6272
45.904362 11.028453 228.3812
45.904358 11.02845 229.14101
45.904369 11.028459 226.8681
45.904366 11.028456 227.64371
45.904362 11.028453 228.39861
45.904358 11.028451 229.157
45.904366 11.028457 227.4028
45.904362 11.028454 228.16409
45.904362 11.028453 228.681
45.904369 11.028459 227.161
45.904366 11.028456 227.92999
45.904362 11.028452 228.9481
45.90443 11.028343 231.9063
45.904366 11.028458 227.435
45.904362 11.028455 228.1985
45.904362 11.028453 228.7166
45.904369 11.02846 226.92709
45.904366 11.028457 227.7066
45.904362 11.028454 228.46519
45.904366 11.028457 227.72321
45.904362 11.028454 228.4827
45.904369 11.028461 226.9585
45.904362 11.028455 228.5002
45.904366 11.028458 227.75729
45.904362 11.028455 228.5186
45.904373 11.028461 226.7186
45.904369 11.028459 227.51311
45.904366 11.028456 228.2818
45.904362 11.028454 228.80499
45.904369 11.02846 227.27029
45.904366 11.028457 228.04649
45.904362 11.028453 229.0715
45.904369 11.02846 227.28529
45.904366 11.028457 228.0625
45.904362 11.028453 229.0889
45.904369 11.028461 227.30009
45.904366 11.028457 228.07851
45.904362 11.028454 229.1078
45.904369 11.028461 227.3172
45.904366 11.028458 228.09641
45.904362 11.028454 229.1254
45.904369 11.028461 227.3318
45.904369 11.028458 228.1125
45.904362 11.028454 229.1443
45.904373 11.028461 227.0799
45.904369 11.028459 227.8709
45.904366 11.028456 228.64011
45.904373 11.028462 226.8242
45.904369 11.02846 227.6243
45.904366 11.028457 228.401
45.904366 11.028456 228.9283
45.904373 11.028463 226.8385
45.904369 11.028461 227.64169
45.904366 11.028458 228.41901
45.904366 11.028456 228.94479
45.904373 11.028462 227.1255
45.904369 11.02846 227.9182
45.904366 11.028457 228.6909
45.904373 11.028461 227.4091
45.904369 11.028459 228.19501
45.904373 11.028462 227.1553
45.904369 11.02846 227.95081
45.904366 11.028457 228.72569
45.904373 11.028462 227.4411
45.904369 11.028459 228.2292
45.904377 11.028464 226.91521
45.904373 11.028461 227.72189
45.904369 11.028459 228.50481
45.904366 11.028457 229.037
45.904377 11.028464 226.93221
45.904369 11.028459 228.5233
45.904366 11.028457 229.0542
45.904373 11.028463 227.2178
45.904373 11.028461 228.0182
45.904369 11.028458 228.7982
45.904377 11.028466 226.6813
45.904373 11.028463 227.50391
45.904369 11.02846 228.2964
45.904373 11.028462 227.787
45.904369 11.028459 228.5748
45.904369 11.028458 229.1067
45.904377 11.028464 227.2619
45.904369 11.028459 228.8495
45.904373 11.028463 227.5522
45.904373 11.028461 228.3485
45.904373 11.028462 227.83479
45.904369 11.02846 228.62621
45.904369 11.028459 229.1601
45.904377 11.028465 227.3087
45.904373 11.028461 228.116
45.904369 11.028459 228.90289
45.904415 11.028377 233.97411
45.904373 11.028462 228.134
45.904369 11.02846 228.9221
45.904415 11.028378 233.99049
45.904373 11.028462 228.1501
45.904369 11.02846 228.9395
45.904381 11.028467 226.79781
45.904415 11.028378 234.01019
45.904373 11.028462 228.1671
45.904369 11.02846 228.9575
45.904381 11.028467 227.0939
45.904377 11.028465 227.6452
45.904373 11.028461 228.4498
45.904377 11.028466 227.3869
45.904377 11.028464 227.93269
45.904373 11.028461 228.73241
45.904381 11.028468 226.8427
45.904377 11.028465 227.67799
45.904373 11.028462 228.4847
45.904381 11.028466 227.41679
45.904377 11.028463 228.2328
45.904373 11.028461 229.0274
45.904381 11.028467 227.43381
45.904377 11.028463 228.25121
45.904373 11.028461 229.04691
45.904381 11.028468 227.17
45.904377 11.028465 227.99789
45.904373 11.028461 228.8029
45.904381 11.028469 226.9044
45.904377 11.028466 227.74339
45.904377 11.028463 228.5555
45.904385 11.02847 226.9183
45.904381 11.028466 227.7588
45.904377 11.028463 228.5723
45.904381 11.028468 227.4958
45.904377 11.028464 228.3185
45.904373 11.028461 229.1179
45.904381 11.028468 227.51089
45.904373 11.028461 229.1358
45.904381 11.028469 227.24519
45.904381 11.028466 228.07941
45.904377 11.028463 228.8907
45.904381 11.028467 227.8217
45.904377 11.028464 228.6411
45.904385 11.028472 226.6998
45.904381 11.028468 227.55859
45.904377 11.028465 228.38721
45.904373 11.028462 229.1946
45.904385 11.02847 227.29179
45.904381 11.028467 228.1302
45.904377 11.028463 228.9458
45.904385 11.02847 227.30859
45.904381 11.028467 228.14819
45.904377 11.028464 228.965
45.904385 11.02847 227.3231
45.904381 11.028467 228.16409
45.904377 11.028464 228.9821
45.904385 11.028471 227.3369
45.904381 11.028467 228.1792
45.904377 11.028464 228.9987
45.904385 11.028471 227.35361
45.904381 11.028466 228.4727
45.904385 11.028472 227.0784
45.904381 11.028469 227.9346
45.904381 11.028465 228.7645
45.904385 11.028471 227.383
45.904381 11.028468 228.2298
45.904377 11.028465 229.0529
45.904388 11.028474 226.8129
45.904385 11.028469 227.968
45.904381 11.028466 228.8011
45.904385 11.028472 227.41299
45.904381 11.028468 228.2636
45.904381 11.028465 229.0885
45.904385 11.028471 227.71561
45.904381 11.028468 228.55791
45.904388 11.028473 227.15289
45.904385 11.02847 228.01711
45.904381 11.028467 228.854
45.904388 11.028473 227.4613
45.904385 11.028469 228.3159
45.904381 11.028466 229.14481
45.904385 11.028472 227.7643
45.904381 11.028468 228.6113
45.904388 11.028474 227.1976
45.904385 11.028471 228.06641
45.904381 11.028467 228.90849
45.904392 11.028476 226.9165
45.904388 11.028472 227.79601
45.904385 11.028469 228.6461
45.904392 11.028476 226.9297
45.904388 11.028473 227.81039
45.904385 11.028469 228.66209
45.904388 11.028475 227.24249
45.904385 11.028472 228.1161
45.904385 11.028468 228.9621
45.904388 11.028474 227.5535
45.904385 11.028471 228.41721
45.904392 11.028477 226.97459
45.904388 11.028473 227.8607
45.904385 11.02847 228.71609
45.904392 11.028476 227.2859
45.904388 11.028473 228.16451
45.904385 11.028469 229.0137
45.904396 11.028478 226.69411
45.904392 11.028475 227.59891
45.904388 11.028472 228.46831
45.904392 11.028476 227.3168
45.904388 11.028473 228.1987
45.904385 11.02847 229.05009
45.904396 11.028479 226.7205
45.904392 11.028475 227.63
45.904388 11.028472 228.5025
45.904392 11.028478 227.0423
45.904388 11.028475 227.9395
45.904385 11.028471 228.80409
45.904396 11.028479 226.7478
45.904392 11.028476 227.662
45.904388 11.028473 228.53799
45.904396 11.028479 227.07249
45.904392 11.028475 227.97279
45.904388 11.028472 228.8409
45.904392 11.028478 227.39439
45.904388 11.028474 228.2845
45.904385 11.028471 229.14481
45.904396 11.02848 226.7903
45.904392 11.028477 227.70869
45.904388 11.028473 228.5896
45.904396 11.028479 227.1167
45.904392 11.028476 228.0219
45.904388 11.028473 228.89571
45.904396 11.028478 227.43919
45.904388 11.028472 229.19901
45.904396 11.028481 226.83321
45.904392 11.028478 227.7542
45.904388 11.028474 228.64079
45.904396 11.028479 227.4682
45.904392 11.028476 228.3672
45.904396 11.028481 227.1734
45.904392 11.028477 228.08611
45.904388 11.028474 228.96651
45.9044 11.028481 226.8772
45.904396 11.028478 227.8029
45.904392 11.028475 228.6951
45.904396 11.02848 227.5134
45.904392 11.028477 228.4174
45.9044 11.028481 227.2175
45.904396 11.028478 228.1358
45.904392 11.028475 229.0208
45.9044 11.028482 226.9213
45.904396 11.028479 227.851
45.904392 11.028476 228.74879
45.904396 11.028481 227.5585
45.904392 11.028477 228.4684
45.9044 11.028481 227.2618
45.904392 11.028478 228.4868
45.9044 11.028482 227.2756
45.904396 11.028479 228.202
45.904392 11.028476 229.0939
45.904396 11.028481 227.9158
45.904392 11.028477 228.82111
45.904404 11.028485 226.66859
45.9044 11.028481 227.6228
45.904396 11.028479 228.53979
45.9044 11.028483 227.3213
45.904396 11.02848 228.2533
45.904392 11.028477 229.1506
45.9044 11.028481 227.9626
45.904396 11.028478 228.8741
45.904404 11.028486 226.7081
45.9044 11.028482 227.6689
45.904396 11.02848 228.5918
45.904404 11.028483 227.3656
45.9044 11.028481 228.30321
45.904404 11.028484 227.3819
45.9044 11.028481 228.3215
45.904404 11.028484 227.39529
45.9044 11.028481 228.3372
45.904404 11.028484 227.4117
45.9044 11.028481 228.35561
45.904408 11.028487 226.7762
45.904404 11.028483 227.74719
45.9044 11.028481 228.6803
45.904408 11.028488 226.78841
45.904404 11.028484 227.7614
45.9044 11.028481 228.69659
45.904408 11.028486 227.1304
45.904404 11.028483 228.09419
45.904396 11.02848 229.02029
45.904408 11.028487 227.14439
45.904404 11.028483 228.11011
45.9044 11.028481 229.0383
45.904408 11.028487 227.159
45.904404 11.028483 228.12691
45.9044 11.028481 229.0576
45.904408 11.028488 227.1739
45.904404 11.028484 228.144
45.9044 11.028481 229.0761
45.904408 11.028488 227.1881
45.904404 11.028484 228.1609
45.9044 11.028481 229.0945
45.904408 11.028488 227.20081
45.904404 11.028484 228.1759
45.9044 11.028481 229.11189
45.904408 11.028488 227.2157
45.904404 11.028485 228.19299
45.9044 11.028481 229.1308
45.904408 11.028489 227.23019
45.904404 11.028485 228.2101
45.9044 11.028482 229.1503
45.904408 11.028489 227.2444
45.904404 11.028485 228.2261
45.9044 11.028482 229.1684
45.904411 11.028489 227.25909
45.904404 11.028485 228.5607
45.904408 11.028489 227.60831
45.904404 11.028485 228.5799
45.904411 11.028492 226.9525
45.904408 11.028487 227.9529
45.904404 11.028484 228.91341
45.904411 11.02849 227.3037
45.904408 11.028487 228.2946
45.904411 11.028489 227.6523
45.904408 11.028486 228.63049
45.904408 11.028488 228.0015
45.904404 11.028485 228.9678
45.904411 11.028491 227.3475
45.904408 11.028488 228.3461
45.904415 11.028494 226.6667
45.904411 11.02849 227.6987
45.904408 11.028487 228.6844
45.904411 11.028489 228.04961
45.904408 11.028486 229.02229
45.904415 11.028492 227.3909
45.904408 11.028489 228.39661
45.904419 11.028495 226.70551
45.904411 11.028491 227.74631
45.904408 11.028488 228.7399
45.904415 11.028495 227.0771
45.904411 11.028491 228.10069
45.904408 11.028487 229.0809
45.904415 11.028493 227.4342
45.904411 11.02849 228.44749
45.904415 11.028495 227.10361
45.904411 11.028491 228.13139
45.904408 11.028488 229.1163
45.904415 11.028494 227.4637
45.904411 11.02849 228.4819
45.904415 11.028496 227.1315
45.904415 11.028492 228.16431
45.904408 11.028488 229.1545
45.904415 11.028495 227.49561
45.904411 11.028491 228.5184
45.904419 11.028497 227.16161
45.904415 11.028493 228.1982
45.904411 11.028489 229.1916
45.904419 11.028496 227.52361
45.904415 11.028492 228.5513
45.904419 11.028498 227.19119
45.904415 11.028493 228.23241
45.904423 11.028499 226.8365
45.904415 11.028495 227.9014
45.904411 11.028491 228.92149
45.904419 11.028497 227.57001
45.904415 11.028493 228.6055
45.904419 11.028499 227.23441
45.904415 11.028494 228.2827
45.904423 11.0285 226.8802
45.904419 11.028496 227.9511
45.904415 11.028492 228.9791
45.904419 11.028498 227.61501
45.904415 11.028494 228.65849
45.904419 11.0285 227.2762
45.904419 11.028496 228.33211
45.904423 11.028501 226.92171
45.904419 11.028498 227.998
45.904415 11.028493 229.0345
45.904419 11.028499 227.6617
45.904419 11.028495 228.7122
45.904423 11.028501 227.31931
45.904419 11.028497 228.3821
45.904419 11.028499 228.0459
45.904415 11.028495 229.08971
45.904427 11.028502 226.97369
45.904419 11.028499 228.06239
45.904419 11.028495 229.10921
45.904423 11.028502 227.3629
45.904419 11.028498 228.4334
45.904423 11.028502 227.37511
45.904419 11.028499 228.4487
45.904423 11.028502 227.3898
45.904419 11.028499 228.467
45.904423 11.028502 227.7675
45.904419 11.028498 228.83569
45.904427 11.028503 227.416
45.904423 11.0285 228.50079
45.904423 11.028502 228.15981
45.904423 11.028502 228.1747
45.904423 11.028501 228.552
45.904427 11.028502 227.84261
45.904423 11.0285 228.92751
45.904427 11.028502 228.2247
45.904423 11.028502 228.6058
45.904408 11.028514 227.24831
45.904423 11.028501 228.9846
45.904427 11.028503 228.2765
45.904427 11.028502 229.02319
45.904427 11.028502 228.6817
45.904427 11.028502 229.0809
45.904427 11.028502 229.0999
